ply
format ascii 1.0
comment Created by Open3D
element vertex 339
property double x
property double y
property double z
property uchar red
property uchar green
property uchar blue
end_header
181.145 -262.037 165.266 0 0 0
181.144 -262.035 165.262 0 0 0
181.134 -262.043 165.282 0 0 0
181.135 -262.033 165.266 0 0 0
181.138 -262.033 165.257 0 0 0
181.135 -262.034 165.268 0 0 0
181.145 -262.028 165.262 0 0 0
181.139 -262.036 165.262 0 0 0
181.139 -262.028 165.26 0 0 0
181.15 -262.028 165.267 0 0 0
181.138 -262.031 165.253 0 0 0
181.138 -262.036 165.256 0 0 0
181.14 -262.031 165.26 0 0 0
181.145 -262.039 165.268 0 0 0
181.14 -262.034 165.264 0 0 0
181.138 -262.033 165.252 0 0 0
181.131 -262.042 165.256 0 0 0
181.136 -262.038 165.253 0 0 0
181.135 -262.039 165.26 0 0 0
181.135 -262.039 165.281 0 0 0
181.136 -262.037 165.262 0 0 0
181.145 -262.022 165.248 0 0 0
181.14 -262.041 165.265 0 0 0
181.138 -262.035 165.272 0 0 0
181.147 -262.033 165.273 0 0 0
181.126 -262.037 165.253 0 0 0
181.131 -262.043 165.268 0 0 0
181.132 -262.032 165.246 0 0 0
181.138 -262.034 165.275 0 0 0
181.134 -262.031 165.253 0 0 0
181.14 -262.037 165.264 0 0 0
181.14 -262.036 165.256 0 0 0
181.644 -262.482 163.376 0 0 0
181.392 -262.262 164.327 0 0 0
181.663 -262.48 163.375 0 0 0
181.397 -262.259 164.34 0 0 0
181.401 -262.253 164.314 0 0 0
181.126 -262.039 165.256 0 0 0
180.894 -261.813 166.204 0 0 0
181.142 -262.038 165.261 0 0 0
181.396 -262.257 164.317 0 0 0
181.397 -262.26 164.319 0 0 0
181.385 -262.258 164.314 0 0 0
181.136 -262.039 165.265 0 0 0
181.642 -262.48 163.378 0 0 0
181.391 -262.181 164.325 0 0 0
181.363 -261.441 164.349 0 0 0
181.346 -259.484 164.286 0 0 0
181.597 -256.751 163.347 0 0 0
181.106 -252.212 165.303 0 0 0
181.613 -248.204 163.36 0 0 0
181.367 -244.988 164.377 0 0 0
181.355 -242.979 164.369 0 0 0
181.372 -242.229 164.312 0 0 0
181.394 -242.621 164.331 0 0 0
181.434 -244.163 164.373 0 0 0
181.429 -247.022 164.322 0 0 0
181.448 -249.857 164.408 0 0 0
181.436 -251.582 164.321 0 0 0
181.412 -252.257 164.307 0 0 0
181.426 -252.705 164.264 0 0 0
181.404 -254.507 164.328 0 0 0
181.128 -257.025 165.289 0 0 0
181.145 -259.966 165.294 0 0 0
181.128 -261.568 165.261 0 0 0
181.14 -262.038 165.257 0 0 0
181.145 -262.043 165.272 0 0 0
181.144 -262.042 165.282 0 0 0
181.396 -262.259 164.325 0 0 0
181.4 -262.257 164.328 0 0 0
181.135 -262.021 165.254 0 0 0
181.397 -262.244 164.31 0 0 0
181.387 -262.241 164.306 0 0 0
181.387 -262.246 164.313 0 0 0
181.389 -262.244 164.313 0 0 0
181.396 -262.251 164.319 0 0 0
181.385 -262.253 164.317 0 0 0
181.399 -262.256 164.317 0 0 0
181.395 -262.25 164.316 0 0 0
181.385 -262.256 164.326 0 0 0
181.387 -262.26 164.336 0 0 0
181.389 -262.259 164.316 0 0 0
181.393 -262.253 164.331 0 0 0
181.399 -262.253 164.316 0 0 0
181.391 -262.258 164.325 0 0 0
181.39 -262.258 164.325 0 0 0
181.401 -262.251 164.314 0 0 0
181.386 -262.255 164.319 0 0 0
181.392 -262.253 164.323 0 0 0
181.397 -262.254 164.321 0 0 0
181.402 -262.256 164.323 0 0 0
181.398 -262.264 164.337 0 0 0
181.394 -262.258 164.333 0 0 0
181.386 -262.258 164.335 0 0 0
181.396 -262.253 164.319 0 0 0
181.394 -262.255 164.329 0 0 0
181.392 -262.259 164.327 0 0 0
181.393 -262.263 164.33 0 0 0
181.381 -262.263 164.324 0 0 0
181.394 -262.255 164.312 0 0 0
181.372 -262.26 164.32 0 0 0
181.386 -262.261 164.337 0 0 0
181.395 -262.253 164.32 0 0 0
181.396 -262.258 164.327 0 0 0
181.388 -262.26 164.334 0 0 0
181.394 -262.258 164.323 0 0 0
181.386 -262.26 164.322 0 0 0
181.393 -262.256 164.317 0 0 0
181.377 -262.265 164.32 0 0 0
181.389 -262.256 164.318 0 0 0
181.389 -262.26 164.316 0 0 0
181.4 -262.255 164.326 0 0 0
181.391 -262.257 164.335 0 0 0
181.387 -262.26 164.322 0 0 0
181.388 -262.26 164.327 0 0 0
181.382 -262.256 164.318 0 0 0
181.388 -262.248 164.326 0 0 0
181.385 -262.262 164.33 0 0 0
181.367 -262.265 164.335 0 0 0
181.377 -262.259 164.31 0 0 0
181.374 -262.261 164.327 0 0 0
181.373 -262.26 164.315 0 0 0
181.386 -262.252 164.314 0 0 0
181.376 -262.258 164.314 0 0 0
181.373 -262.261 164.322 0 0 0
181.374 -262.257 164.305 0 0 0
181.377 -262.258 164.313 0 0 0
181.388 -262.264 164.316 0 0 0
181.366 -262.266 164.325 0 0 0
181.382 -262.256 164.324 0 0 0
181.366 -262.26 164.316 0 0 0
181.367 -262.262 164.327 0 0 0
181.384 -262.261 164.332 0 0 0
181.359 -262.268 164.321 0 0 0
181.379 -262.264 164.334 0 0 0
181.367 -262.265 164.335 0 0 0
181.378 -262.265 164.319 0 0 0
181.38 -262.262 164.331 0 0 0
181.373 -262.26 164.32 0 0 0
181.375 -262.269 164.32 0 0 0
181.381 -262.255 164.305 0 0 0
181.384 -262.256 164.318 0 0 0
181.374 -262.262 164.317 0 0 0
181.36 -262.266 164.323 0 0 0
181.382 -262.259 164.317 0 0 0
181.378 -262.265 164.335 0 0 0
181.377 -262.267 164.333 0 0 0
181.382 -262.257 164.315 0 0 0
181.37 -262.263 164.323 0 0 0
181.363 -262.269 164.324 0 0 0
181.363 -262.265 164.319 0 0 0
181.369 -262.271 164.341 0 0 0
181.369 -262.268 164.325 0 0 0
181.37 -262.26 164.318 0 0 0
181.379 -262.257 164.318 0 0 0
181.377 -262.26 164.323 0 0 0
181.367 -262.268 164.331 0 0 0
181.378 -262.26 164.333 0 0 0
181.377 -262.263 164.322 0 0 0
181.389 -262.261 164.333 0 0 0
181.369 -262.256 164.317 0 0 0
181.365 -262.259 164.315 0 0 0
181.375 -262.265 164.327 0 0 0
181.371 -262.262 164.319 0 0 0
181.377 -262.262 164.314 0 0 0
181.364 -262.269 164.325 0 0 0
181.369 -262.265 164.332 0 0 0
181.361 -262.269 164.323 0 0 0
181.364 -262.262 164.308 0 0 0
181.371 -262.258 164.323 0 0 0
181.367 -262.258 164.32 0 0 0
181.367 -262.265 164.325 0 0 0
181.366 -262.257 164.317 0 0 0
181.374 -262.262 164.326 0 0 0
181.379 -262.266 164.342 0 0 0
181.372 -262.262 164.329 0 0 0
181.375 -262.26 164.308 0 0 0
181.365 -262.26 164.315 0 0 0
181.381 -262.257 164.324 0 0 0
181.379 -262.258 164.315 0 0 0
181.377 -262.255 164.321 0 0 0
181.38 -262.26 164.32 0 0 0
181.38 -262.26 164.323 0 0 0
181.378 -262.26 164.323 0 0 0
181.38 -262.261 164.318 0 0 0
181.373 -262.261 164.327 0 0 0
181.357 -262.265 164.324 0 0 0
181.367 -262.263 164.313 0 0 0
181.373 -262.259 164.319 0 0 0
181.366 -262.265 164.318 0 0 0
181.364 -262.265 164.324 0 0 0
181.369 -262.258 164.304 0 0 0
181.386 -262.261 164.334 0 0 0
181.377 -262.261 164.314 0 0 0
181.367 -262.263 164.318 0 0 0
181.383 -262.262 164.323 0 0 0
181.38 -262.255 164.305 0 0 0
181.367 -262.273 164.339 0 0 0
181.376 -262.27 164.343 0 0 0
181.367 -262.258 164.31 0 0 0
181.378 -262.261 164.33 0 0 0
181.375 -262.262 164.323 0 0 0
181.368 -262.259 164.322 0 0 0
181.367 -262.265 164.318 0 0 0
181.379 -262.262 164.326 0 0 0
181.374 -262.261 164.326 0 0 0
181.378 -262.262 164.324 0 0 0
181.37 -262.264 164.314 0 0 0
181.377 -262.259 164.321 0 0 0
181.375 -262.258 164.317 0 0 0
181.371 -262.259 164.308 0 0 0
181.388 -262.262 164.329 0 0 0
181.372 -262.27 164.333 0 0 0
181.379 -262.258 164.319 0 0 0
181.387 -262.263 164.315 0 0 0
181.371 -262.263 164.314 0 0 0
181.369 -262.261 164.319 0 0 0
181.38 -262.263 164.322 0 0 0
181.367 -262.265 164.326 0 0 0
181.37 -262.268 164.342 0 0 0
181.357 -262.265 164.313 0 0 0
181.364 -262.264 164.311 0 0 0
181.372 -262.261 164.325 0 0 0
181.387 -262.255 164.313 0 0 0
181.378 -262.262 164.336 0 0 0
181.36 -262.266 164.323 0 0 0
181.37 -262.268 164.32 0 0 0
181.359 -262.274 164.33 0 0 0
181.379 -262.262 164.331 0 0 0
181.377 -262.263 164.322 0 0 0
181.377 -262.26 164.323 0 0 0
181.372 -262.262 164.316 0 0 0
181.37 -262.267 164.329 0 0 0
181.377 -262.263 164.333 0 0 0
181.385 -262.256 164.326 0 0 0
181.373 -262.263 164.32 0 0 0
181.372 -262.26 164.32 0 0 0
181.379 -262.262 164.32 0 0 0
181.376 -262.262 164.332 0 0 0
181.355 -262.27 164.326 0 0 0
181.37 -262.265 164.325 0 0 0
181.374 -262.258 164.327 0 0 0
181.359 -262.271 164.328 0 0 0
181.372 -262.262 164.329 0 0 0
181.367 -262.26 164.308 0 0 0
181.633 -262.482 163.384 0 0 0
181.367 -262.26 164.319 0 0 0
181.624 -262.479 163.37 0 0 0
181.114 -262.038 165.256 0 0 0
181.368 -262.26 164.328 0 0 0
181.111 -262.038 165.262 0 0 0
180.868 -261.817 166.203 0 0 0
181.125 -262.029 165.255 0 0 0
181.111 -262.039 165.28 0 0 0
181.386 -262.258 164.319 0 0 0
181.371 -262.265 164.333 0 0 0
181.11 -262.035 165.257 0 0 0
181.377 -262.26 164.322 0 0 0
181.358 -262.236 164.344 0 0 0
181.363 -261.542 164.355 0 0 0
181.322 -259.492 164.291 0 0 0
181.614 -256.755 163.373 0 0 0
181.337 -252.118 164.397 0 0 0
181.618 -248.198 163.338 0 0 0
181.332 -245.013 164.365 0 0 0
181.36 -242.979 164.356 0 0 0
181.379 -242.233 164.307 0 0 0
181.383 -242.623 164.316 0 0 0
181.403 -244.172 164.39 0 0 0
181.415 -247.015 164.337 0 0 0
181.413 -249.859 164.402 0 0 0
181.43 -251.674 164.33 0 0 0
181.388 -252.256 164.303 0 0 0
181.424 -252.78 164.265 0 0 0
181.415 -254.485 164.325 0 0 0
181.417 -257.467 164.364 0 0 0
181.398 -260.189 164.396 0 0 0
181.403 -261.862 164.338 0 0 0
181.39 -262.272 164.314 0 0 0
181.378 -262.272 164.329 0 0 0
181.386 -262.266 164.34 0 0 0
181.383 -262.267 164.342 0 0 0
181.39 -262.262 164.326 0 0 0
181.375 -262.261 164.319 0 0 0
181.379 -262.253 164.304 0 0 0
181.39 -262.248 164.312 0 0 0
181.39 -262.246 164.304 0 0 0
181.376 -262.249 164.317 0 0 0
181.387 -262.246 164.296 0 0 0
181.379 -262.254 164.319 0 0 0
181.388 -262.246 164.314 0 0 0
181.377 -262.251 164.309 0 0 0
181.395 -262.248 164.319 0 0 0
181.388 -262.254 164.318 0 0 0
181.395 -262.247 164.311 0 0 0
181.386 -262.256 164.322 0 0 0
181.387 -262.251 164.324 0 0 0
181.389 -262.248 164.312 0 0 0
181.366 -262.257 164.315 0 0 0
181.386 -262.251 164.308 0 0 0
181.383 -262.254 164.31 0 0 0
181.381 -262.248 164.307 0 0 0
181.385 -262.247 164.314 0 0 0
181.388 -262.254 164.318 0 0 0
181.391 -262.253 164.324 0 0 0
181.391 -262.256 164.313 0 0 0
181.394 -262.251 164.317 0 0 0
181.38 -262.247 164.306 0 0 0
181.392 -262.243 164.308 0 0 0
181.387 -262.251 164.322 0 0 0
181.382 -262.258 164.338 0 0 0
181.387 -262.248 164.315 0 0 0
181.391 -262.252 164.318 0 0 0
181.385 -262.251 164.319 0 0 0
181.391 -262.247 164.319 0 0 0
181.387 -262.259 164.342 0 0 0
181.388 -262.253 164.321 0 0 0
181.39 -262.248 164.312 0 0 0
181.387 -262.249 164.31 0 0 0
181.375 -262.251 164.308 0 0 0
181.377 -262.255 164.32 0 0 0
181.368 -262.258 164.32 0 0 0
181.384 -262.254 164.312 0 0 0
181.391 -262.248 164.311 0 0 0
181.387 -262.25 164.301 0 0 0
181.391 -262.255 164.323 0 0 0
181.384 -262.255 164.32 0 0 0
181.127 -262.022 165.252 0 0 0
181.382 -262.258 164.323 0 0 0
181.386 -262.25 164.312 0 0 0
181.379 -262.257 164.329 0 0 0
181.396 -262.243 164.306 0 0 0
181.392 -262.249 164.307 0 0 0
181.384 -262.249 164.316 0 0 0
181.373 -262.251 164.318 0 0 0
181.378 -262.255 164.32 0 0 0
181.385 -262.251 164.308 0 0 0
181.388 -262.249 164.316 0 0 0
181.374 -262.259 164.33 0 0 0
